0.94888 -6.405608 0.9100808
1.053277 -6.406111 0.9124188
1.159359 -6.409927 0.9154807
1.25582 -6.412715 0.9183755
1.353719 -6.417055 0.9217157
1.451264 -6.415605 0.9244434
1.550592 -6.420039 0.928229
1.650801 -6.4265 0.9325155
1.750661 -6.42917 0.936468
1.85095 -6.42781 0.9400865
1.952731 -6.42868 0.9442617
2.052983 -6.422746 0.9476576
2.120404 -6.405862 0.9483256
2.378816 -6.403281 0.9600161
2.567826 -6.449385 0.9756035
2.901929 -6.454072 0.994531
-3.188409 -6.317458 0.994531
-2.7251 -6.330653 0.9686449
-2.403584 -6.324155 0.9508307
-2.057232 -6.339039 0.9366351
-1.874859 -6.337542 0.9288414
-1.714832 -6.33347 0.922161
-1.448477 -6.35496 0.9160374
-1.388733 -6.348011 0.913254
-1.246113 -6.357352 0.9104705
-1.148165 -6.35435 0.90752
-1.045666 -6.354796 0.9051263
-0.9516257 -6.35674 0.9033448
-0.8485193 -6.357844 0.9014707
-0.7650651 -6.362504 0.9006355
0.468475 -6.390842 0.9005892
0.5517809 -6.391524 0.9016191
0.6456617 -6.396264 0.9035118
0.7342587 -6.398008 0.9050891
0.8533955 -6.395905 0.906852
2.16512 -6.386692 0.9477689
2.249547 -6.39353 0.9525565
2.322118 -6.390346 0.9555626
18.56072 -6.380101 0.9152712
18.64326 -6.317609 0.917973
-8.139943 -6.205469 0.9549292
-7.806879 -6.205422 0.9304057
-7.49455 -6.211057 0.9081116
-5.666243 -6.242425 0.9858872
-5.487044 -6.261183 0.9735752
-5.329916 -6.260416 0.9614956
-5.176823 -6.264382 0.950345
-5.0034 -6.27214 0.9382654
-4.835137 -6.285359 0.9273472
-4.665442 -6.286608 0.9154999
-4.500692 -6.291141 0.9045817
3.281869 -6.274993 0.995227
3.314322 -6.270247 0.9967578
-11.63966 -6.105778 0.9191113
-8.636646 -6.196922 0.9917144
-8.477206 -6.193027 0.9794527
-8.317914 -6.190953 0.9673767
-7.986379 -6.199339 0.9432248
-7.662179 -6.198069 0.9194445
-19.14987 -5.920556 0.9347432
-18.9521 -5.917439 0.9258923
-18.75624 -5.921018 0.9172277
-18.68062 -5.954565 0.9143395
-18.45559 -5.943217 0.9041845
-12.12808 -5.945486 0.9445027
-11.9177 -5.903039 0.9299933
-11.79378 -5.95232 0.923785
-11.66656 -5.949543 0.915763
-19.35472 -5.865657 0.9431281
-19.21982 -5.883429 0.9373518
-12.06649 -5.848766 0.9376665
-11.78231 -5.879579 0.9207855
-19.55952 -5.738141 0.9505814
-19.4534 -5.766056 0.9462026
-19.35391 -5.799094 0.9421965
-12.93591 -5.767553 0.9904025
-11.94885 -5.727489 0.9265752
-19.4978 -5.657255 0.9467617
-12.11582 -5.635554 0.9343879
-12.00529 -5.690262 0.9290167
-11.94893 -5.622735 0.9234362
-19.50297 -5.596076 0.9462026
-12.43928 -5.504545 0.9511993
-12.04382 -5.536992 0.926924
-12.36327 -5.429673 0.9442236
-12.0388 -5.471148 0.9246918
-39.44251 -5.346863 0.9241147
-12.35649 -5.380447 0.9424099
-12.29364 -5.309747 0.9364109
-11.96604 -5.380266 0.9174371
-12.33731 -5.268693 0.9380851
-42.56501 -5.158471 0.9954646
-40.33378 -5.116806 0.9439367
-39.71655 -5.15123 0.9298245
-38.66337 -5.124461 0.9054996
-12.28605 -5.16209 0.9318767
-12.35372 -5.064094 0.9336207
-12.24859 -5.083554 0.9273426
-40.36664 -4.99931 0.9443545
-5.005356 -4.96714 0.9910517
-12.36842 -4.839662 0.9287377
-5.016017 -4.810188 0.9767169
-4.945234 -4.814026 0.9699438
-5.024795 -4.761727 0.9729128
-4.940733 -4.791251 0.9672531
-12.66191 4.662436 0.9435261
8.923078 4.680746 0.9400665
8.926756 4.716505 0.9419243
-12.0471 4.896718 0.9093454
-4.777964 4.863269 0.9581605
-12.03904 4.937569 0.9099035
-4.74606 4.914619 0.9602017
-4.688479 4.926849 0.9558409
0.5187158 4.935967 0.9351107
20.436 4.993101 0.9810471
20.86021 4.911931 0.9994009
-4.76519 5.065574 0.9774128
0.4824021 5.005329 0.9474233
0.5656726 5.043087 0.9561254
0.6008924 5.084535 0.9646425
19.87593 5.099582 0.9569169
19.93076 5.054364 0.9588734
20.15215 5.05066 0.9688421
20.38901 5.042003 0.9794632
39.62213 5.054638 0.9273642
-4.762985 5.135821 0.9844179
-0.07114336 5.126298 0.9659386
0.5972775 5.177959 0.9820468
18.61866 5.184419 0.9012963
19.0723 5.192554 0.9217929
19.16775 5.161094 0.925706
19.42431 5.168407 0.9373518
19.95829 5.180157 0.9615752
0.4361142 5.237407 0.9901934
19.11845 5.266094 0.9247743
1.091383 5.378808 0.9017143
1.736479 5.335982 0.9219254
1.169194 5.450541 0.915873
1.25207 5.437836 0.9167915
1.325919 5.434917 0.9191153
1.66319 5.484529 0.941596
1.834475 5.449364 0.9446763
-0.4247485 5.570929 0.9179264
-0.351436 5.554675 0.9144409
-0.294732 5.549674 0.9130629
-0.02911549 5.559386 0.9133871
0.02696297 5.585043 0.9176022
0.1515177 5.54452 0.9112795
0.2411857 5.547493 0.9123063
0.3578832 5.564224 0.916062
1.088141 5.567257 0.931977
1.185489 5.548706 0.9321931
1.596658 5.553567 0.9493778
1.678198 5.537696 0.9506748
1.748659 5.555162 0.9568354
1.863442 5.535456 0.9595914
-0.3565808 5.628106 0.9265188
-0.267186 5.665663 0.9318688
-0.1051826 5.684802 0.9341385
-0.00587104 5.60683 0.9211688
0.07593083 5.65433 0.9290587
0.1410977 5.641483 0.9271673
0.2472924 5.641868 0.9278158
0.3210588 5.619378 0.9247355
0.9584787 5.639911 0.9398937
1.03271 5.632493 0.9408178
1.191208 5.662486 0.9506748
1.656239 5.637959 0.9654278
1.753807 5.613569 0.9662384
1.953664 5.664217 0.9843959
3.064268 5.669556 0.9057386
3.170988 5.687796 0.9152024
3.259417 5.690112 0.9216043
3.356506 5.667952 0.9257795
3.445235 5.6664 0.9320145
3.550784 5.6731 0.9406015
3.614521 5.663893 0.9442896
3.735354 5.676402 0.9550059
4.068947 5.680324 0.9820055
4.153862 5.677557 0.9886858
5.266316 5.664333 0.9044656
5.351255 5.656866 0.9106216
5.441254 5.637464 0.9162549
5.675862 5.677845 0.9388462
7.801246 5.697118 0.9012377
8.349342 5.644389 0.9402523
11.62402 5.631795 0.9032068
11.75285 5.630971 0.9112986
11.87564 5.623736 0.9188323
11.96156 5.628683 0.9244128
12.0515 5.624832 0.9299933
12.1478 5.625937 0.9361319
12.2368 5.628299 0.9418519
12.33164 5.622454 0.9477115
12.4309 5.625832 0.954129
12.52566 5.629256 0.9602676
12.62347 5.625614 0.9664062
12.7166 5.627259 0.9724053
12.82009 5.624959 0.9789624
12.91721 5.621931 0.9851009
13.02359 5.622324 0.991937
13.11627 5.618933 0.9977966
-0.254513 5.737365 0.9435415
-0.07136964 5.752407 0.9451627
0.4786978 5.756672 0.9490535
0.555393 5.762678 0.9511611
0.6667009 5.714082 0.9451627
0.7446681 5.758654 0.9539982
0.8407122 5.761242 0.956576
0.9258393 5.741859 0.9555384
1.675014 5.709602 0.9775868
3.16348 5.750785 0.9224394
3.264965 5.740538 0.9281455
3.317505 5.713801 0.928563
3.753428 5.75326 0.9654438
3.825426 5.716514 0.9666964
3.949862 5.760165 0.9815879
4.068051 5.760511 0.9911213
4.15925 5.737344 0.9959227
5.35312 5.758626 0.919449
5.65026 5.736345 0.9415951
5.767586 5.719473 0.9498805
5.964309 5.762706 0.9698584
6.060547 5.773321 0.9788406
6.149639 5.756124 0.9850354
6.242023 5.75789 0.9930885
6.303613 5.731827 0.9963407
7.768053 5.76068 0.9022595
7.950787 5.75216 0.915543
8.061329 5.763869 0.9245535
8.131585 5.759613 0.9296626
8.245652 5.769344 0.9388898
8.359483 5.740278 0.9460735
8.514519 5.702126 0.9560439
8.656962 5.745119 0.9693274
8.74837 5.731293 0.975737
8.867503 5.756429 0.9863266
8.957018 5.759135 0.9934794
9.043076 5.722275 0.9984026
-0.2937768 5.859982 0.9639686
-0.133597 5.886541 0.9673731
-0.07248352 5.84913 0.9610505
0.5278531 5.822736 0.9605641
0.6434331 5.865706 0.9694808
0.7723993 5.804332 0.9620233
0.9083475 5.800597 0.9646171
3.237993 5.828357 0.9370526
3.442363 5.890903 0.9589027
3.949979 5.818001 0.9883146
5.969403 5.852842 0.9776405
6.012186 5.895798 0.9847257
-5.205915 5.9845 0.9275795
-5.122764 5.995863 0.9222366
-5.025313 5.984688 0.9138738
-4.874034 5.978331 0.9020264
-1.142776 5.971274 0.998857
-1.05342 5.970451 0.9960685
-0.9550875 5.96596 0.9926639
-0.8479378 5.961531 0.9893136
-0.7506739 5.957143 0.986471
-0.6542411 5.952797 0.9839095
-0.549882 5.9498 0.9816939
-0.479246 5.936831 0.9785596
-0.2284312 5.928053 0.9746687
-0.1944276 5.923357 0.9736959
0.3067727 5.993696 0.986017
0.4514378 5.941979 0.9790459
0.5933304 5.902722 0.9746686
0.6225129 5.922531 0.9783974
-5.113951 6.021637 0.9238627
-5.071945 6.040169 0.9223528
-4.993298 6.01659 0.9143384
-4.836563 6.038418 0.9047366
-3.703437 6.064826 0.9987062
-3.641273 6.064799 0.9941832
-3.542698 6.057032 0.9861807
-3.448362 6.056591 0.9795004
-3.35342 6.050864 0.9722634
-3.251031 6.050313 0.9653047
-3.144539 6.041131 0.9571631
-3.045987 6.041419 0.9508864
-2.944706 6.035411 0.9438025
-2.848214 6.035672 0.9379711
-2.749256 6.029101 0.9312769
-2.653889 6.025052 0.9252785
-2.548934 6.022915 0.9191549
-2.445142 6.017931 0.91292
-2.341403 6.01146 0.906685
-2.259745 6.006569 0.9019346
-0.1793235 6.00676 0.987314
-12.88458 6.173256 0.9990522
-12.79255 6.175896 0.9933322
-12.6981 6.174082 0.9873331
-12.58906 6.170043 0.9803575
-12.4902 6.167616 0.9740794
-12.35394 6.166114 0.9654994
-12.21648 6.157615 0.9566403
-12.11881 6.156203 0.9505017
-12.06072 6.169125 0.9472929
-4.674722 6.176621 0.9058594
-12.06005 6.238002 0.9494554
-5.849276 6.217973 0.9983153
-18.9822 6.343988 0.9333456
-12.05594 6.300011 0.9511993
-12.05276 6.568652 0.9598491
-12.04509 6.747453 0.9654296
-12.03747 6.856329 0.9687082
-12.03977 6.952582 0.972196
-40.10582 7.086166 0.9455615
-39.35058 7.073201 0.9282461
-38.63168 7.048429 0.9117201
-12.03249 7.042511 0.9749165
-41.80228 7.14539 0.984602
-40.9804 7.122746 0.9657084
-12.02949 7.27387 0.9830083
-10.74816 7.245641 0.9064156
-12.02789 7.341854 0.9853799
-12.02134 7.485534 0.9902629
-12.01997 7.559153 0.9929137
-12.01729 7.652926 0.996262
-12.01737 7.726863 0.9990522
-10.96122 7.882235 0.9440841
-10.88522 7.926003 0.9415729
-11.62764 8.006402 0.9871936
-40.60647 8.883342 0.9650585
-39.39901 9.706489 0.9420798
-39.40496 9.832061 0.9429154
-16.78427 10.18093 0.9154575
-16.78135 10.24338 0.9168551
-16.77979 10.34523 0.9192774
-16.77261 10.44409 0.9214203
-16.76694 10.50973 0.9228178
-16.77077 10.74808 0.9289201
-16.77103 10.84551 0.9313892
-16.76582 10.95247 0.9339046
-16.76415 11.04973 0.9363269
-16.75622 11.15392 0.9387027
-16.74929 11.533 0.9483455
-16.7517 11.64711 0.9514666
-1.15743 -15.50188 1.087015
-1.048715 -15.50257 1.086527
-0.9352719 -15.51387 1.086806
-0.8235037 -15.50623 1.085829
-0.7529305 -15.50581 1.08555
-0.6637973 -15.51387 1.085829
-0.5730649 -15.51749 1.085829
-0.4376054 -15.5209 1.08576
-0.3481031 -15.51917 1.08548
-0.2601102 -15.52289 1.08562
-0.1476327 -15.52133 1.085411
-0.03658077 -15.52503 1.08562
0.05556796 -15.53096 1.086039
0.1450364 -15.53138 1.086108
0.2345055 -15.53128 1.086178
0.3714908 -15.5336 1.086527
0.461105 -15.53619 1.086876
0.5504377 -15.52929 1.086597
0.6415943 -15.53477 1.087224
0.7548349 -15.54462 1.088271
0.8665347 -15.54783 1.088899
0.9602665 -15.54432 1.089038
1.04781 -15.54966 1.089805
1.118213 -15.56178 1.090991
1.252062 -15.55021 1.090898
1.366003 -15.55099 1.091619
1.459582 -15.55651 1.092596
1.569039 -15.55489 1.093223
1.637734 -15.55582 1.093781
1.731008 -15.55475 1.094409
1.846011 -15.5579 1.095549
1.940008 -15.57532 1.097548
2.076644 -15.56373 1.097967
2.143456 -15.56674 1.098804
2.236137 -15.56579 1.099641
-1.048438 -15.49865 1.086248
-11.68361 -9.620956 1.058345
-11.7215 -9.59052 1.059043
-11.68467 -9.509425 1.053462
-11.68319 -9.400245 1.048579
-11.7169 -9.313368 1.046626
-11.69389 -9.351833 1.047045
-11.61455 -9.175906 1.035047
-12.69536 -8.830086 1.081365
46.09485 -7.300707 1.083526
43.04443 -7.210891 1.013291
43.88369 -7.209826 1.032509
8.845947 -6.800007 1.040947
8.955535 -6.80748 1.049493
9.076585 -6.812416 1.058782
9.194456 -6.820939 1.068071
2.97994 -6.708801 1.03169
5.373335 -6.719025 1.006097
5.493073 -6.706447 1.013763
5.598654 -6.719714 1.022823
5.831078 -6.714985 1.040013
5.944563 -6.723834 1.049538
6.190978 -6.720858 1.068586
6.294597 -6.719497 1.076717
6.437555 -6.715334 1.087867
6.540926 -6.742643 1.098553
8.355981 -6.78104 1.003976
8.505153 -6.779857 1.014752
8.622273 -6.792373 1.024041
8.731577 -6.7949 1.032215
9.231531 -6.726813 1.065656
3.062457 -6.6552 1.029603
3.760475 -6.69014 1.078592
3.988276 -6.677139 1.093066
9.24163 -6.650568 1.06225
9.546679 -6.620299 1.083863
12.80268 -6.602298 1.007283
12.9246 -6.61385 1.015236
13.02661 -6.620216 1.021793
13.51823 -6.62251 1.052625
13.73107 -6.631944 1.066297
13.85259 -6.63705 1.07411
13.96116 -6.641192 1.081086
14.06624 -6.643075 1.087783
14.18822 -6.646247 1.095595
20.60074 -6.614172 1.008997
20.76838 -6.608071 1.016357
21.01466 -6.617833 1.027444
21.29285 -6.631984 1.040022
21.52702 -6.639029 1.05055
21.80076 -6.652681 1.062941
22.07744 -6.669775 1.075518
22.37926 -6.692817 1.089307
2.971426 -6.559599 1.012067
9.284743 -6.598322 1.062684
9.365449 -6.577265 1.0677
9.538148 -6.530906 1.078475
9.656943 -6.533326 1.087765
9.784963 -6.535632 1.097797
0.9285756 -6.404276 1.063186
1.099464 -6.405197 1.067726
1.254639 -6.406785 1.072589
1.431806 -6.416049 1.080047
1.59078 -6.423232 1.08718
3.092516 -6.474867 1.008448
-4.352361 -6.311463 1.077478
-4.008402 -6.306498 1.0502
-3.854273 -6.306884 1.038788
-3.682875 -6.310068 1.026819
-3.520654 -6.32277 1.017077
-3.354624 -6.325102 1.006222
-1.876636 -6.343548 1.086856
-1.71806 -6.345393 1.080047
-1.351746 -6.356627 1.067726
-1.195972 -6.34772 1.061241
-0.8771355 -6.353754 1.053783
-0.7069988 -6.353085 1.050217
-0.5410631 -6.363421 1.049244
-0.3747188 -6.363518 1.047299
0.273256 -6.386459 1.050217
0.4399053 -6.38704 1.051838
0.6097468 -6.390911 1.054756
-8.967883 -6.200401 1.017167
-6.816932 -6.200759 1.077646
-6.648097 -6.225534 1.065102
-6.489152 -6.222874 1.051396
-6.168318 -6.228901 1.025146
-6.003073 -6.240295 1.012602
-4.503397 -6.29492 1.087777
-9.953367 -6.178566 1.092967
-9.78465 -6.192771 1.080333
-9.627036 -6.17333 1.066957
-9.462195 -6.182457 1.054509
-9.282494 -6.183634 1.040576
-9.1337 -6.197938 1.0298
-8.803264 -6.196222 1.004348
-6.974023 -6.198363 1.09112
-20.74566 -5.827437 1.004898
-14.51066 -5.877421 1.094758
-22.01687 -5.702152 1.060612
-21.80947 -5.721605 1.051481
-21.61289 -5.730554 1.042724
-21.42406 -5.748578 1.034432
-21.24202 -5.771327 1.026513
-21.04482 -5.773006 1.017662
-20.85911 -5.792585 1.009556
-22.7008 -5.60527 1.090425
-22.69475 -5.671059 1.090891
-22.39312 -5.66633 1.077195
-22.22337 -5.685325 1.069742
-22.61931 -5.509811 1.085673
-22.62878 -5.445221 1.085394
-44.34483 -5.10735 1.036362
-43.31968 -5.111899 1.012734
-46.04597 -5.026601 1.075403
-45.11595 -5.068542 1.054049
-44.12106 -3.402679 1.027403
-44.58958 -3.305752 1.03808
22.19364 4.145411 1.052879
5.894595 4.276395 1.023479
5.924586 4.261925 1.025706
5.894655 4.330057 1.027933
5.903524 4.311244 1.027376
-13.92209 4.561202 1.024444
-13.88846 4.593172 1.022909
-4.790905 4.655696 1.097556
8.136868 4.650602 1.095998
22.58635 4.693863 1.075798
-14.91742 4.770807 1.095177
-13.52756 4.761155 1.002819
5.828965 4.7982 1.061056
22.1005 4.798484 1.054649
22.3393 4.780985 1.065363
22.50278 4.742073 1.072444
5.697561 4.886851 1.054932
5.769049 4.86145 1.06029
5.838875 4.844098 1.066252
21.85691 4.873582 1.044307
22.10652 4.864481 1.055581
14.5756 4.984661 1.077179
14.72997 4.964349 1.086945
14.87604 4.942835 1.096153
20.91443 4.986377 1.002662
21.56277 4.942495 1.031637
21.66222 4.901665 1.035736
14.07451 5.086565 1.046487
14.15956 5.050361 1.05123
14.23795 5.008386 1.055416
14.38375 5.014584 1.065181
20.87906 5.039612 1.001637
7.716215 5.167506 1.086009
13.5421 5.117138 1.012306
13.69459 5.131098 1.02263
14.11281 5.150597 1.050532
1.226202 5.290205 1.023151
1.53516 5.280622 1.036111
13.65287 5.229893 1.022351
0.4311159 5.381769 1.017226
1.249437 5.341933 1.033642
1.366581 5.392636 1.048146
1.51748 5.336816 1.045369
2.226654 5.359016 1.093385
13.67453 5.350728 1.026815
14.63104 5.383176 1.090154
-0.1477471 5.479542 1.032779
1.233364 5.463974 1.055367
1.332731 5.462831 1.05944
1.539311 5.458495 1.068575
1.648775 5.499139 1.081659
1.727075 5.47093 1.080918
3.170577 5.498247 1.042759
3.256922 5.482001 1.047623
3.330599 5.46007 1.050784
10.08115 5.471346 1.070115
13.66438 5.484731 1.029606
13.72137 5.460402 1.032675
-4.927122 5.583764 1.046582
-0.1906646 5.556896 1.047591
1.090021 5.576496 1.070549
1.144486 5.557142 1.069007
1.221161 5.563324 1.073142
1.500071 5.521185 1.077956
1.661134 5.536444 1.089065
1.731819 5.553326 1.096008
2.945387 5.586425 1.037571
3.138981 5.554915 1.048271
3.340188 5.565606 1.066429
3.442298 5.55186 1.073238
5.086533 5.597879 1.063004
9.29023 5.509564 1.007692
10.02216 5.521123 1.067514
13.77292 5.573012 1.038953
-4.925293 5.645969 1.052984
-4.841119 5.615414 1.041989
-4.509507 5.665167 1.017634
-4.422817 5.632658 1.0065
-4.397445 5.622402 1.00316
-0.2168383 5.644454 1.064254
-0.1122333 5.639633 1.062773
-0.03754015 5.671073 1.068513
0.9843471 5.692872 1.088509
1.036918 5.654452 1.08314
2.150795 5.697934 1.000608
2.44049 5.678938 1.015523
2.659216 5.661908 1.027714
2.77186 5.66683 1.036437
2.810619 5.681862 1.041462
2.938179 5.64736 1.045894
3.029591 5.637691 1.051514
3.264169 5.621941 1.06805
3.340529 5.67789 1.082317
4.378808 5.685313 1.008541
4.430687 5.650009 1.009098
4.761548 5.655868 1.039066
4.849206 5.643691 1.045747
4.969963 5.666519 1.059293
5.019581 5.64076 1.061195
5.170634 5.628317 1.074138
6.758023 5.676682 1.032115
6.873729 5.67432 1.042336
6.944548 5.682022 1.049305
7.088316 5.697116 1.063476
7.28443 5.68304 1.080434
9.248505 5.646467 1.010943
9.31192 5.628398 1.015123
9.406124 5.649543 1.023669
9.527878 5.612351 1.031658
13.23106 5.624427 1.00533
13.31755 5.6146 1.010632
13.43158 5.621312 1.018165
13.55238 5.621894 1.025978
-4.908949 5.78025 1.065788
-0.3874746 5.727901 1.081659
-0.2369973 5.726262 1.079807
-0.02199632 5.727169 1.079067
0.03870608 5.72769 1.07919
0.1358904 5.72365 1.078696
0.3589991 5.706124 1.077215
0.7529809 5.727074 1.088324
0.9440465 5.735853 1.095236
1.046359 5.706786 1.093138
2.039621 5.753328 1.002878
2.17635 5.732532 1.007417
2.244531 5.720502 1.009606
2.338994 5.73892 1.018182
2.426281 5.739701 1.023791
2.540035 5.72872 1.029573
2.612993 5.712531 1.032059
2.773555 5.752666 1.049244
2.877058 5.730319 1.053459
2.932719 5.739747 1.058971
3.170768 5.746241 1.078264
3.239657 5.733133 1.081911
4.264061 5.756288 1.006778
4.408835 5.793715 1.023201
4.745049 5.703279 1.042685
5.185931 5.761655 1.089447
6.360214 5.783205 1.005284
6.433562 5.780618 1.01144
6.521064 5.742006 1.016086
6.639543 5.745227 1.026772
6.740199 5.747939 1.035909
6.899799 5.7487 1.050235
7.031493 5.701078 1.058598
7.188733 5.727404 1.074859
7.292669 5.75941 1.086706
7.333561 5.72335 1.087867
7.433461 5.730742 1.097624
9.089033 5.750291 1.003419
9.142962 5.713156 1.005834
9.250544 5.740054 1.015681
9.85297 5.744865 1.064077
9.921404 5.728127 1.068815
14.14324 5.774632 1.068251
-44.94538 5.813455 1.052192
0.04481184 5.835159 1.099433
0.1116855 5.81657 1.0961
0.2974731 5.812001 1.096471
0.342743 5.819938 1.098446
0.4501179 5.81006 1.097952
2.07894 5.81265 1.014226
2.131983 5.825931 1.019252
2.460695 5.89115 1.04892
3.140799 5.809767 1.085073
4.065975 5.854529 1.001768
4.367768 5.80984 1.021531
4.405316 5.860939 1.030438
4.640892 5.830167 1.047278
4.755387 5.852997 1.059873
4.834371 5.847907 1.066344
9.412308 5.804084 1.031658
-4.584688 5.968407 1.057716
-4.404327 5.982626 1.044077
-4.37391 5.992637 1.042685
-2.011727 5.996753 1.039193
-1.939333 5.996134 1.035383
-1.857584 5.996166 1.03133
-1.74459 5.995076 1.025818
-1.648187 5.987627 1.020333
-1.547348 5.99079 1.016561
-1.453509 5.984198 1.011762
-1.351798 5.979507 1.007201
-1.250195 5.970683 1.002229
-1.196511 5.971662 1.000608
2.169128 5.925872 1.036761
-4.885157 6.09767 1.098076
-4.538966 6.03425 1.061195
-4.466941 6.011438 1.052566
-4.336962 6.033242 1.044262
-4.254832 6.066567 1.041405
-4.149343 6.082617 1.034822
-4.045261 6.079308 1.026263
-3.941032 6.075511 1.017773
-3.837965 6.069204 1.009214
-3.750806 6.066688 1.002418
-2.838681 6.038568 1.096259
-2.750602 6.03205 1.089207
-2.655333 6.028339 1.082252
-2.549941 6.02527 1.074924
-2.444997 6.017514 1.067142
-2.344741 6.02002 1.061435
-2.242273 6.011777 1.054173
-2.141871 6.007645 1.047882
-2.063539 6.007636 1.043624
-1.963507 6.000264 1.037247
-1.814404 6.0058 1.030762
-1.794315 6.003594 1.029465
-0.1636788 6.088151 1.000608
6.772181 6.048654 1.06185
6.860761 6.095551 1.073233
-13.73628 6.1964 1.053741
-13.40816 6.189763 1.032675
-13.30399 6.186801 1.025978
-13.19813 6.182455 1.019142
-13.09494 6.181557 1.012585
-12.99006 6.179249 1.005888
-4.679436 6.162697 1.087499
7.046878 6.151716 1.093907
-13.87042 6.204535 1.062531
-5.829343 6.266544 1.000871
-45.22413 7.187068 1.063147
-44.27745 7.15552 1.041329
-43.41163 7.147822 1.021461
-42.61526 7.146635 1.003217
-46.24689 7.208997 1.086683
7.955966 7.489469 1.019396
8.025214 7.467935 1.02274
-12.01553 7.770219 1.000587
-12.01452 7.848622 1.003517
-12.00725 7.941408 1.006656
-11.99822 8.010896 1.008818
-12.00044 8.164675 1.014957
-12.00214 8.369699 1.023188
-11.99104 8.312281 1.020258
-11.98514 8.437397 1.024932
-11.98997 8.544498 1.029536
-11.9817 8.775703 1.038534
-11.97927 8.960038 1.046068
-11.97521 9.06995 1.050463
-11.96964 9.144855 1.053323
-11.97464 9.230064 1.057229
-11.96612 9.333851 1.061205
-11.96227 9.442183 1.06567
-11.95839 9.525768 1.069088
-11.93361 10.17063 1.096432
-11.89035 10.22732 1.096711
-19.18479 10.60368 1.022227
-19.0976 10.62086 1.019059
-19.10074 10.7013 1.021016
3.078855 -16.23224 1.155307
2.352913 -15.57006 1.101129
2.491356 -15.57145 1.10271
2.56138 -15.57321 1.103617
2.650833 -15.57341 1.104663
2.747509 -15.57387 1.105849
9.673947 -12.60733 1.111221
9.757823 -12.6069 1.114778
10.26126 -12.60849 1.136752
10.36334 -12.61649 1.141704
10.46568 -12.62389 1.146657
10.55275 -12.62537 1.150633
10.64952 -12.62881 1.155167
10.74268 -12.62702 1.159283
10.84729 -12.63342 1.164375
10.93976 -12.63138 1.168491
11.04288 -12.64087 1.173722
11.13532 -12.63272 1.177559
11.24115 -12.63897 1.182791
11.33463 -12.63705 1.187046
11.44386 -12.64742 1.192696
11.54065 -12.64301 1.197021
-11.49759 -12.59589 1.192557
-11.32863 -12.55525 1.182512
-11.278 -12.57395 1.181117
9.866911 -12.59276 1.118685
9.954823 -12.59595 1.122661
10.04032 -12.59302 1.126218
10.16264 -12.59465 1.131659
-11.51799 -12.46882 1.186976
-11.46392 -12.48877 1.185442
-10.67218 -12.47345 1.147913
-10.453 -12.42654 1.135496
-10.14435 -12.38067 1.119243
-10.02593 -12.3832 1.11415
-10.15973 -12.22443 1.1115
-11.89978 -12.08819 1.186139
-11.7546 -12.0433 1.176792
-11.69608 -12.08629 1.176094
-11.50832 -12.03436 1.164375
-12.07608 -11.50795 1.166468
-12.78896 -11.43866 1.199811
-12.13432 -11.46685 1.167444
-12.35877 -11.37244 1.17442
-12.15651 -11.34997 1.16298
-11.36885 -11.3134 1.121545
-11.37779 -11.22787 1.117778
-12.77053 -11.15222 1.185581
-12.76689 -10.63697 1.162003
23.41564 -9.124666 1.171946
-10.14845 -7.686356 1.187716
-10.38772 -7.500131 1.195334
48.42445 -7.401331 1.137329
47.18856 -7.347346 1.10878
-10.52454 -7.233316 1.191432
-10.48234 -7.290847 1.191246
-10.53609 -7.195319 1.190317
-10.84063 -6.903585 1.199049
-10.65244 -6.96013 1.187159
-10.69238 -6.898696 1.187159
23.24691 -6.802276 1.129555
-10.76638 -6.730193 1.184558
4.433609 -6.736705 1.133426
4.690464 -6.701166 1.14957
4.904611 -6.713585 1.168498
5.024323 -6.711266 1.17824
5.1422 -6.701445 1.187147
6.64579 -6.734532 1.106452
6.767647 -6.739357 1.116905
6.987347 -6.759396 1.136883
7.107715 -6.754407 1.14664
7.225008 -6.751587 1.156396
7.340654 -6.776875 1.168321
7.446786 -6.757071 1.17591
7.578121 -6.756606 1.187292
7.675031 -6.76407 1.196352
22.65956 -6.703465 1.101978
23.30729 -6.744934 1.131512
23.40286 -6.701822 1.135238
24.48624 -6.707864 1.183964
24.77525 -6.703435 1.196915
4.096881 -6.685503 1.101973
4.339607 -6.679855 1.119509
4.457989 -6.69206 1.130086
4.572753 -6.695872 1.139549
4.804296 -6.695746 1.158199
14.30803 -6.653712 1.103408
14.40445 -6.649688 1.109407
14.52816 -6.657645 1.117499
14.63568 -6.657527 1.124335
14.75357 -6.658391 1.131868
14.86977 -6.657799 1.139263
14.99521 -6.660625 1.147354
15.10503 -6.658964 1.15433
15.22045 -6.659142 1.161724
15.52725 -6.683877 1.182093
23.58487 -6.682737 1.143157
23.81696 -6.676709 1.153499
24.12931 -6.687114 1.16766
2.975897 -6.520958 1.177644
9.902232 -6.531799 1.106715
10.02145 -6.527916 1.115818
10.24133 -6.547088 1.134025
10.36812 -6.544328 1.143871
10.49298 -6.536386 1.153346
10.59699 -6.557617 1.162636
10.75749 -6.574134 1.176198
10.94542 -6.555887 1.190317
-10.9634 -6.459225 1.187159
1.911932 -6.433948 1.102744
2.079361 -6.437823 1.111498
2.244004 -6.436666 1.119929
2.415921 -6.447948 1.131277
2.568248 -6.450446 1.14068
2.743119 -6.446734 1.151056
2.945564 -6.475064 1.168727
3.044058 -6.468859 1.174596
3.232855 -6.430612 1.182507
-11.00504 -6.35633 1.185673
-10.78102 -6.353046 1.167466
-3.629143 -6.32275 1.197747
-3.524543 -6.329754 1.190289
-3.362196 -6.339379 1.178941
-3.19938 -6.339195 1.166619
-3.038817 -6.336823 1.154622
-2.728742 -6.339113 1.133871
0.01333745 -6.367947 1.199786
-10.69177 -6.217767 1.153904
-7.803261 -6.202548 1.165688
-7.317512 -6.2057 1.122016
-7.148035 -6.204938 1.106916
-5.6518 -6.245562 1.183806
-5.585807 -6.264967 1.179631
-5.490252 -6.264844 1.170724
-5.380753 -6.288928 1.163209
-5.160264 -6.27997 1.142333
-4.835201 -6.285443 1.114498
-4.670406 -6.293297 1.101416
3.188694 -6.25017 1.152785
3.211511 -6.208888 1.148462
-11.23522 -6.146009 1.194776
-11.00837 -6.144807 1.176198
-10.88572 -6.16386 1.167094
-10.79234 -6.15085 1.15892
-10.27801 -6.178093 1.118791
-10.1215 -6.163648 1.1056
-7.973047 -6.188991 1.180323
-7.838776 -6.192913 1.168244
-7.657266 -6.194095 1.15175
-7.480738 -6.199611 1.136186
3.254745 -6.179043 1.147408
3.331681 -6.172895 1.152461
-11.07603 -5.93394 1.172296
-10.99457 -5.92987 1.165422
-16.08307 -5.815638 1.195905
-15.95074 -5.8466 1.187953
-15.75865 -5.85433 1.175536
-15.57409 -5.835313 1.16298
-15.44185 -5.84115 1.15447
-15.30617 -5.83874 1.145541
-15.18637 -5.844717 1.137868
-15.06025 -5.844512 1.129636
-14.83148 -5.854244 1.114987
-10.92481 -5.811275 1.154461
-16.15389 -5.736265 1.198695
-11.22827 -5.768073 1.177684
-11.04244 -5.751613 1.161583
-10.96288 -5.794748 1.156876
-24.21112 -5.611837 1.158996
-23.92501 -5.615967 1.146046
-23.63615 -5.613489 1.132909
-11.03778 -5.628885 1.155947
-4.993019 -5.12906 1.176022
-5.007228 -5.012484 1.164025
-4.997937 -5.062043 1.168727
-5.015669 -4.96344 1.159324
-5.021095 -4.815057 1.14295
-4.949452 -4.818136 1.134844
-5.026827 -4.749588 1.136222
-4.945953 -4.796313 1.131926
-5.033008 -4.658492 1.126738
-5.056296 -4.586353 1.12155
-11.19703 -4.419661 1.123064
8.572863 4.183118 1.115511
8.672859 4.14046 1.123874
5.909581 4.238649 1.194828
8.566432 4.241236 1.117834
5.862669 4.319943 1.19645
8.787028 4.479146 1.153376
8.554144 4.552154 1.133166
8.760517 4.54686 1.154248
-11.74612 4.693359 1.180099
8.626385 4.636085 1.145246
8.708124 4.60099 1.15175
23.88193 4.676795 1.134866
50.79182 4.693933 1.184261
-11.71438 4.761478 1.179728
-10.85634 4.71146 1.104114
-4.784874 4.759389 1.108796
8.199081 4.733744 1.107149
8.531273 4.760155 1.142458
8.645472 4.777489 1.155119
8.781892 4.766198 1.168476
23.48839 4.740362 1.117443
23.73275 4.720736 1.128437
24.49713 4.726279 1.163468
47.55381 4.796799 1.109662
48.59497 4.773347 1.133662
49.62604 4.725991 1.157383
-4.785018 4.856213 1.120091
8.569065 4.814641 1.149427
15.77345 4.88873 1.154749
15.89004 4.876274 1.162282
16.04952 4.873162 1.172885
-4.741535 4.924052 1.12309
-4.684593 4.938257 1.118307
4.858016 4.946315 1.139059
4.945979 4.933231 1.147705
5.061578 4.991395 1.167916
5.144254 4.970257 1.175212
15.15444 4.964995 1.115127
15.62083 4.988253 1.146657
15.86446 4.965542 1.162422
-4.755103 5.054892 1.140194
4.864748 5.025289 1.14911
4.946434 5.070539 1.163809
6.526513 5.002542 1.155694
15.93614 5.03688 1.1687
-4.764062 5.136974 1.151056
4.890625 5.169882 1.169213
4.947661 5.186463 1.177644
-4.765676 5.261343 1.166295
4.868318 5.220604 1.17278
4.941074 5.25252 1.184777
8.688592 5.286904 1.189383
4.852667 5.374207 1.18964
4.91804 5.352081 1.19418
2.207928 5.418478 1.102396
2.333863 5.453201 1.117578
5.651654 5.474923 1.10587
5.707327 5.499961 1.113942
10.69784 5.493223 1.121949
2.343587 5.523832 1.130539
2.757715 5.594427 1.17516
2.858076 5.593598 1.183492
3.974186 5.581903 1.125765
4.601473 5.595948 1.190289
4.70346 5.585536 1.199692
5.566335 5.53634 1.103364
5.659952 5.517538 1.11088
5.74364 5.502188 1.117839
10.64639 5.52558 1.119069
10.8578 5.534712 1.136997
10.93443 5.53776 1.1435
11.05075 5.532538 1.152975
11.16448 5.527531 1.162264
11.25411 5.530396 1.169881
11.33036 5.528635 1.176198
11.41027 5.528232 1.182886
11.53845 5.528248 1.193661
-15.6688 5.641116 1.164515
-4.33887 5.648398 1.170186
1.487244 5.669042 1.104247
1.511121 5.691198 1.109431
2.445811 5.668216 1.163126
2.747416 5.636137 1.181363
2.822773 5.602695 1.182011
2.908207 5.62972 1.193861
3.580317 5.665698 1.101123
3.6827 5.662172 1.109715
3.76154 5.656798 1.116103
3.866563 5.636826 1.123041
3.952797 5.622797 1.129223
4.06411 5.640466 1.142193
4.168364 5.679339 1.157433
4.24689 5.666123 1.163377
4.364921 5.684333 1.177481
4.445447 5.669316 1.183642
4.54641 5.662171 1.193045
4.656985 5.615361 1.198557
5.571159 5.623919 1.11255
8.363998 5.688409 1.182879
-10.83311 5.78434 1.145729
-4.447334 5.754173 1.194828
0.822216 5.798952 1.103507
0.9211332 5.770106 1.100914
1.089085 5.752804 1.103136
1.860778 5.774863 1.143129
1.905665 5.799527 1.150165
2.325393 5.799217 1.177197
2.553414 5.737632 1.183245
2.619841 5.7501 1.190528
3.575877 5.733731 1.110201
3.672445 5.73728 1.119172
4.48474 5.717546 1.193856
5.330406 5.73419 1.100303
5.419975 5.761606 1.111715
5.678633 5.798829 1.140663
5.709715 5.796063 1.143446
6.060126 5.773 1.176291
6.113606 5.791468 1.183528
6.269277 5.766919 1.197167
7.565321 5.761146 1.112027
7.693613 5.789143 1.125965
7.773194 5.745565 1.130379
7.839843 5.725305 1.135257
8.036828 5.728361 1.154151
8.24166 5.766602 1.176297
8.362656 5.7432 1.186363
8.494817 5.725517 1.197978
-0.5173126 5.877469 1.111653
-0.2690654 5.880274 1.109061
0.07869212 5.852466 1.102766
0.1810751 5.85938 1.104494
0.233309 5.884735 1.109617
0.3536781 5.883674 1.110542
0.4200058 5.868786 1.108567
0.5021488 5.833413 1.103136
0.7922433 5.828908 1.10832
0.846782 5.821677 1.108413
1.080286 5.800451 1.111653
1.559613 5.800304 1.13165
1.889464 5.804825 1.150165
1.940418 5.850146 1.161274
2.034838 5.846649 1.166384
2.148823 5.84695 1.173679
2.249643 5.832453 1.177814
2.32694 5.805982 1.178493
2.544698 5.805242 1.194231
3.398344 5.815574 1.106635
3.700935 5.892938 1.143274
5.433632 5.808538 1.117839
5.56115 5.813316 1.130642
7.572412 5.804218 1.115744
7.799731 5.803158 1.136883
7.838023 5.86146 1.144549
-1.736326 5.999916 1.176827
-1.631789 5.997559 1.171087
-1.548641 5.995822 1.166754
-1.454955 5.990126 1.161422
-1.353511 5.987173 1.156522
-1.252706 5.98266 1.151646
-1.153568 5.980856 1.147634
-1.045932 5.978338 1.143499
-0.9475018 5.974054 1.139648
-0.8494287 5.97202 1.136525
-0.7521114 5.968505 1.133427
-0.6555219 5.96444 1.130539
-0.5558084 5.957187 1.12728
-0.4545311 5.950023 1.124318
-0.3500991 5.942115 1.121503
-0.2976849 5.937938 1.12017
0.2642741 5.948005 1.121775
0.536707 5.920128 1.119985
2.157596 5.947409 1.192009
5.600733 5.920537 1.145395
-5.01477 6.079079 1.10754
-4.02003 6.079346 1.197422
-3.941342 6.075996 1.189884
-3.841282 6.074463 1.180805
-3.739476 6.067064 1.170915
-3.642125 6.066226 1.162485
-3.54562 6.062053 1.153812
-3.451085 6.061351 1.145949
-3.355681 6.054961 1.137357
-3.251883 6.051894 1.128748
-3.149136 6.050004 1.120577
-3.048209 6.045809 1.112406
-2.946197 6.03849 1.103879
-2.893346 6.038876 1.10015
-2.04515 6.010213 1.196157
-1.947933 6.008547 1.190084
-1.851303 6.00571 1.184085
-1.76123 6.003345 1.178771
-1.661872 6.002541 1.173494
0.9313176 6.064952 1.15609
2.031991 6.010167 1.195342
-5.242564 6.136081 1.134261
-5.179338 6.185656 1.133843
-5.054557 6.180946 1.122153
-5.633351 6.254273 1.182971
-5.038156 6.233839 1.126467
-23.52834 6.370462 1.136729
-23.33014 6.391156 1.128064
-24.84907 6.495858 1.197753
-24.4616 6.476736 1.180051
-24.14622 6.465438 1.165704
-23.27529 6.454809 1.126387
-11.05544 6.491379 1.196077
-10.99441 6.496899 1.191432
-10.74287 6.475402 1.170253
-10.93515 6.503146 1.186973
-10.88277 6.513205 1.183258
-10.74628 6.538943 1.173597
-10.67069 6.559517 1.168581
-15.70139 6.918592 1.199811
-50.65229 7.290086 1.188114
-49.42302 7.254086 1.159751
-48.5082 7.275564 1.138815
-47.26369 7.24079 1.110126
6.274306 7.498673 1.143388
6.207613 7.641193 1.151286
47.22913 7.971263 1.112029
-11.92925 10.35164 1.104454
-10.76796 11.608 1.107175
5.393832 -17.56565 1.284914
5.398858 -17.22778 1.262453
5.463199 -17.26399 1.266219
5.513208 -17.25437 1.266638
5.536727 -17.14203 1.259662
-12.13322 -13.68521 1.278915
-11.5624 -13.19368 1.226737
-11.38857 -13.15196 1.216553
-11.41017 -13.09356 1.21446
-11.77087 -12.66697 1.209159
11.64925 -12.6463 1.202322
11.74109 -12.64151 1.206438
11.84481 -12.64437 1.21153
11.95607 -12.65197 1.21725
12.0731 -12.66471 1.223529
-11.83435 -12.51448 1.204415
-11.79717 -12.54954 1.204415
-11.86433 -12.48056 1.204136
-12.704 -11.62476 1.204136
-12.79606 -11.50546 1.203299
-10.33274 -8.409173 1.242894
-10.32213 -8.305145 1.23602
-10.19588 -8.153843 1.217999
-10.25293 -8.075525 1.217628
16.05736 -8.040924 1.255756
-10.22931 -7.986265 1.210754
16.07568 -7.966049 1.25457
-10.5483 -7.896884 1.229332
-10.59411 -7.784992 1.226545
-10.49251 -7.758378 1.217442
-11.48278 -7.600283 1.284696
-11.09079 -7.48083 1.248096
-10.53234 -7.486293 1.205552
-11.266 -6.814872 1.228403
-10.97561 -6.770736 1.203136
2.964103 -6.701506 1.203907
5.375856 -6.722178 1.209693
5.495508 -6.709418 1.218878
5.599698 -6.720966 1.229455
5.837054 -6.721867 1.251166
5.951751 -6.731964 1.262857
6.332328 -6.719669 1.29765
7.840387 -6.789161 1.212846
7.918271 -6.774802 1.218653
8.031815 -6.794621 1.230268
8.154966 -6.777599 1.240025
8.261056 -6.783293 1.250014
8.50291 -6.77807 1.271618
8.633204 -6.781459 1.283814
8.727384 -6.791637 1.293222
16.37995 -6.714567 1.237898
25.13547 -6.725626 1.213405
25.40137 -6.720819 1.225331
25.76214 -6.739352 1.241821
26.07023 -6.737367 1.255703
26.39596 -6.738059 1.270423
26.73354 -6.739807 1.285703
-12.19249 -6.619983 1.294356
3.759766 -6.688879 1.260649
3.994432 -6.687446 1.279779
4.100974 -6.692183 1.289507
15.81032 -6.69155 1.200509
15.91239 -6.685685 1.206926
16.02424 -6.67681 1.213902
16.20625 -6.696284 1.226179
16.37577 -6.656171 1.236085
-11.39236 -6.53768 1.22543
11.17279 -6.5629 1.208896
11.34045 -6.549998 1.221808
11.65043 -6.575399 1.248096
11.75268 -6.584513 1.256828
11.87581 -6.563914 1.265931
11.98252 -6.576556 1.275221
12.23124 -6.577588 1.295657
16.37324 -6.598605 1.234411
16.63565 -6.568067 1.250664
0.7785341 -6.405334 1.215709
1.100924 -6.413703 1.226077
1.269025 -6.429647 1.234779
1.434903 -6.429926 1.24126
1.59321 -6.433044 1.248666
1.756653 -6.443329 1.258294
1.91638 -6.448916 1.267551
2.081073 -6.443123 1.275698
-4.187181 -6.322529 1.245896
-4.016478 -6.319203 1.230171
-3.840512 -6.32399 1.21558
-3.734888 -6.313649 1.205204
-3.674976 -6.316778 1.200665
-2.567685 -6.364836 1.293102
-2.415962 -6.356723 1.281253
-2.055395 -6.36363 1.25996
-1.720749 -6.355324 1.240519
-1.389474 -6.3514 1.224966
-1.045276 -6.355295 1.213487
-0.8772884 -6.354862 1.208673
-0.7084367 -6.366005 1.206821
-0.541667 -6.370524 1.2046
-0.00667662 -6.375819 1.201267
0.0322808 -6.377706 1.201637
0.1060038 -6.392632 1.2046
0.2731396 -6.383739 1.203859
0.4406607 -6.398008 1.208303
0.6105974 -6.399827 1.211265
-6.824429 -6.207578 1.296537
-6.152701 -6.213131 1.228899
-5.998892 -6.235949 1.216095
-5.832204 -6.241158 1.200507
-4.675083 -6.2996 1.288858
-4.501272 -6.291951 1.271025
-4.339232 -6.292424 1.255786
-9.127713 -6.193876 1.28997
-8.955668 -6.191956 1.273244
-8.79952 -6.193586 1.258377
-8.636423 -6.196762 1.243045
-8.47083 -6.188369 1.226784
-11.80847 -5.980419 1.234905
-25.48977 -5.819211 1.219275
-16.2232 -5.815137 1.205113
-16.19683 -5.847188 1.204136
-11.6582 -5.840488 1.216513
-25.52636 -5.757298 1.2203
-16.50049 -5.791322 1.222831
-16.41018 -5.704998 1.214879
-16.34783 -5.792285 1.212786
-16.21699 -5.796946 1.204276
-12.33031 -5.735373 1.268718
-12.16776 -5.725709 1.254599
-11.86791 -5.71164 1.228775
-11.63679 -5.744927 1.210754
-27.17133 -5.626911 1.293995
-25.51311 -5.67014 1.218809
-16.41285 -5.654603 1.213902
-12.50897 -5.661166 1.28098
-12.44402 -5.678941 1.27615
-12.23452 -5.624666 1.256271
-12.01136 -5.69314 1.240107
-11.91994 -5.690628 1.232305
-11.75694 -5.698725 1.218928
-11.64693 -5.68814 1.209267
-25.73184 -5.568126 1.227753
-25.51519 -5.595881 1.218157
-12.4149 -5.53526 1.268161
-12.39563 -5.573422 1.267975
-25.72803 -5.45222 1.226449
-12.55373 -5.422084 1.275778
-12.49303 -5.48666 1.272991
-12.39571 -5.485264 1.264631
-5.034034 -4.714063 1.299397
-5.039456 -4.65117 1.292084
-5.050833 -4.568082 1.283104
-25.47611 -4.06237 1.203064
4.897778 4.176503 1.212746
4.92476 4.157839 1.214351
4.872178 4.253067 1.218523
5.063027 4.218359 1.24163
5.947607 4.265155 1.202448
6.065755 4.270997 1.218822
4.82765 4.338319 1.222893
5.248846 4.345311 1.283845
5.921322 4.309997 1.203259
4.832124 4.420078 1.233854
5.896782 4.409754 1.209743
53.19926 4.598194 1.239735
54.57557 4.554091 1.271487
-12.95799 4.665164 1.284881
-4.796364 4.674063 1.261812
51.84908 4.636538 1.208586
-4.791413 4.751948 1.27144
5.747046 4.772527 1.227334
5.836588 4.746727 1.236007
-12.99794 4.805503 1.29287
-4.787055 4.858274 1.285048
5.532343 4.886004 1.212662
5.672907 4.865755 1.227901
5.74622 4.840481 1.234386
7.823744 4.824499 1.291805
-4.749897 4.947104 1.292177
-4.694022 4.932667 1.282919
5.647335 4.929976 1.23163
5.816789 4.931254 1.252867
7.661223 4.941109 1.281228
16.55689 4.973604 1.20888
16.63445 4.919424 1.212995
5.378511 5.095107 1.217201
5.401675 5.084949 1.218822
5.669784 5.037409 1.246058
7.536106 5.094617 1.278444
7.630527 5.063971 1.287073
7.727041 5.07958 1.299598
5.279605 5.146761 1.211365
5.684988 5.138679 1.259028
5.794936 5.175816 1.276537
5.927617 5.174634 1.292749
7.25171 5.121235 1.247687
7.337378 5.131966 1.258403
7.438935 5.157665 1.272181
7.537591 5.141801 1.282341
7.61914 5.102496 1.288743
5.500012 5.239424 1.248004
5.666241 5.232323 1.267134
5.775832 5.220699 1.279131
7.318824 5.216615 1.263135
8.918867 5.289327 1.212613
5.606495 5.370809 1.275564
3.131647 5.597677 1.208488
3.224292 5.591397 1.216079
3.960618 5.597923 1.291991
4.758893 5.587729 1.205853
11.6696 5.526161 1.204623
11.74433 5.52646 1.210939
11.83742 5.524912 1.218742
11.91881 5.519889 1.22543
2.981275 5.671391 1.207192
3.054888 5.651633 1.210432
3.139927 5.645113 1.217067
3.253712 5.668144 1.231385
3.34541 5.668029 1.240056
3.419325 5.679486 1.249036
3.569358 5.684887 1.264712
3.666058 5.678385 1.273476
3.723836 5.669001 1.27792
3.938201 5.636887 1.295571
4.646956 5.636221 1.200178
4.74582 5.60401 1.206501
4.856186 5.635155 1.222173
4.960406 5.690231 1.240222
5.231652 5.661553 1.266486
-12.06822 5.782122 1.248468
-4.803978 5.753651 1.231467
-4.780853 5.777995 1.232116
3.490359 5.72262 1.262923
3.525295 5.703475 1.263293
3.660472 5.717123 1.279031
3.742387 5.736582 1.29051
3.801146 5.716855 1.293473
4.645473 5.751033 1.214607
5.196508 5.755132 1.273943
5.276478 5.778484 1.285616
6.411928 5.795659 1.214703
7.199927 5.786821 1.298207
8.683634 5.743218 1.217492
8.857466 5.748492 1.234837
8.972794 5.733929 1.245252
9.083614 5.727999 1.255821
9.245825 5.757194 1.273709
9.342785 5.742054 1.28242
9.493719 5.702154 1.29508
-4.763116 5.82453 1.236169
-4.66131 5.837021 1.227252
-4.552826 5.854682 1.218498
-4.436878 5.809494 1.200989
-3.533904 5.865159 1.29014
2.548623 5.861431 1.204229
2.65053 5.816059 1.204229
2.760798 5.866727 1.221634
5.148753 5.868967 1.282698
5.203719 5.865216 1.28821
6.462111 5.875948 1.227507
6.590529 5.870915 1.24045
6.685923 5.88717 1.252001
8.720112 5.806802 1.225158
8.835753 5.808422 1.23654
-4.808082 5.96724 1.259028
-4.747046 5.92624 1.247518
-4.660785 5.941888 1.240708
-4.460687 5.965882 1.223848
-4.393522 5.931005 1.212662
2.761615 5.925004 1.231632
6.281747 5.913418 1.212476
6.350289 5.944577 1.222497
6.466567 5.915149 1.231682
6.580838 5.912947 1.243373
-5.110069 6.017066 1.296964
-4.559206 6.023892 1.241195
-4.449615 6.044143 1.233089
-4.39104 6.01611 1.223686
-4.24391 6.08872 1.219362
-4.151933 6.086404 1.210473
-4.071447 6.080688 1.202286
-3.40438 6.000101 1.299768
-3.253736 6.055391 1.295176
-3.150704 6.052993 1.285696
-3.051239 6.051813 1.276957
-2.947643 6.04146 1.266533
-2.850302 6.040082 1.258368
-2.754173 6.039857 1.250702
-2.658672 6.035901 1.242667
-2.551093 6.027982 1.233261
-2.448381 6.025894 1.225485
-2.345219 6.021252 1.217486
-2.245398 6.020186 1.210599
-2.145332 6.017354 1.203637
2.028118 6.050874 1.202378
-12.09463 6.18647 1.267418
-4.352387 6.16533 1.239898
-17.30964 6.289934 1.287844
-4.468657 6.274 1.265513
-11.26026 6.391517 1.207967
-25.06248 6.476926 1.207163
-11.11481 6.484563 1.200536
-25.80174 6.50489 1.240889
-10.75135 7.268269 1.210754
-54.63929 7.377817 1.280075
-53.35418 7.375028 1.250505
-51.99569 7.344537 1.21917
-11.0464 7.89387 1.266675
-10.71606 7.894782 1.24178
-11.02293 7.92661 1.266675
-10.70698 7.937215 1.243452
-11.84027 13.33831 1.247176
4.029061 -19.38742 1.384666
4.035921 -19.13526 1.367506
4.070534 -18.87489 1.350206
4.152157 -18.86939 1.351043
4.237629 -18.85751 1.351532
4.322459 -18.85771 1.352857
4.442058 -18.86475 1.355229
4.526881 -18.86302 1.356484
4.643323 -18.8686 1.358786
4.760625 -18.86917 1.360809
4.846887 -18.86371 1.361925
4.90378 -18.87992 1.364018
5.050559 -18.87524 1.36632
5.170909 -18.87574 1.368552
5.258759 -18.88564 1.370854
5.314176 -18.88048 1.371552
5.467918 -18.88222 1.374621
5.501143 -18.67924 1.361646
5.495618 -18.49361 1.34909
5.477307 -18.22214 1.330535
-12.22201 -14.44234 1.323001
-12.61087 -14.14419 1.325094
7.566769 -12.5485 1.367091
7.664358 -12.54634 1.371642
7.768071 -12.54567 1.376659
7.87454 -12.55793 1.382882
7.948961 -12.5546 1.386319
8.029415 -12.56004 1.390778
8.131942 -12.55801 1.395794
15.99358 -10.03275 1.320211
16.07413 -10.01305 1.324257
16.04148 -9.861067 1.316723
16.10985 -9.523543 1.308631
16.33849 -9.532146 1.322722
16.28038 -9.433612 1.315747
17.20611 -9.25292 1.366111
16.19206 -9.194634 1.302074
17.63659 -8.897294 1.381318
58.12465 -7.652256 1.361127
58.09689 -7.49392 1.360013
8.955687 -6.807596 1.315523
9.074954 -6.811192 1.326906
28.75376 -6.813 1.378031
2.982115 -6.742229 1.389011
4.692008 -6.703371 1.344303
4.734606 -6.72169 1.350788
4.81034 -6.704169 1.355652
5.029053 -6.717583 1.378673
5.145666 -6.705962 1.388724
6.418766 -6.733305 1.307392
6.537957 -6.739584 1.319639
6.64961 -6.738403 1.330495
6.771312 -6.743007 1.343021
6.894773 -6.744792 1.355546
6.993544 -6.765392 1.367515
7.228051 -6.754431 1.390339
8.841553 -6.796628 1.30414
17.64009 -6.70084 1.319513
17.99358 -6.713209 1.342952
18.13084 -6.710399 1.35188
18.48537 -6.717165 1.375319
27.14115 -6.756987 1.304336
27.47301 -6.763273 1.319429
27.83463 -6.764768 1.335826
28.24041 -6.769499 1.354273
28.83533 -6.736724 1.380919
3.071125 -6.674037 1.384197
4.344709 -6.68771 1.310258
4.459752 -6.694706 1.321607
4.571074 -6.693413 1.331658
9.199775 -6.661973 1.3283
12.90191 -6.602241 1.352135
13.26838 -6.600917 1.382604
13.37833 -6.603269 1.391893
17.78196 -6.69797 1.328721
18.5972 -6.695404 1.382155
28.91633 -6.670545 1.383901
2.99384 -6.560278 1.358646
3.145148 -6.585063 1.37494
3.455267 -6.536897 1.393084
9.32392 -6.504457 1.329461
9.64804 -6.527303 1.362216
9.897819 -6.528888 1.386607
12.33388 -6.588442 1.304574
12.446 -6.598165 1.314235
12.64214 -6.586633 1.329934
12.7873 -6.594367 1.342289
13.15846 -6.589265 1.372943
18.65755 -6.537436 1.382434
2.421149 -6.461901 1.300138
2.576581 -6.471375 1.312358
2.751067 -6.465415 1.323838
2.910407 -6.472928 1.337168
3.261041 -6.486679 1.367904
18.66291 -6.473557 1.381318
-3.854291 -6.34668 1.399009
-3.700339 -6.33999 1.383086
-3.431397 -6.37809 1.364571
-3.357282 -6.373042 1.357165
-3.20658 -6.353462 1.340872
-3.046707 -6.353277 1.327541
-2.896305 -6.367139 1.317913
-2.73927 -6.363571 1.305322
-7.484342 -6.202597 1.366123
-7.324378 -6.211523 1.349701
-7.150637 -6.207197 1.330773
-6.987263 -6.21013 1.313794
-5.475645 -6.285667 1.369594
-5.346422 -6.279803 1.355003
-5.169605 -6.291338 1.337819
-5.018853 -6.29151 1.322255
-4.992932 -6.299515 1.320634
-4.831363 -6.280453 1.301828
-18.8428 -6.126039 1.385503
-18.77634 -6.16245 1.381876
-9.947494 -6.174921 1.369184
-9.774055 -6.186066 1.352691
-9.448941 -6.173798 1.319937
-9.287807 -6.187174 1.305069
-18.91301 -6.090518 1.389409
-18.94774 -5.800141 1.385643
-18.57606 -5.800029 1.360809
-18.2923 -5.830784 1.342533
-18.74848 -5.796458 1.372249
-28.96083 -5.561257 1.375236
-28.47067 -5.559925 1.352783
-28.10424 -5.569888 1.336106
-27.74778 -5.579819 1.319895
-27.39833 -5.594181 1.304057
-13.05381 -5.551744 1.323431
-12.99613 -5.527245 1.317579
-29.17803 -5.434169 1.384087
-13.1404 -5.453616 1.327333
-5.002632 -5.138934 1.35124
-5.010766 -5.030678 1.337786
-5.009693 -4.957532 1.327911
-5.03022 -4.823808 1.313099
-4.956747 -4.820617 1.30273
-5.028286 -4.765045 1.305199
8.491165 4.172655 1.32966
8.545504 4.169768 1.33634
8.542428 4.260989 1.341629
8.537478 4.32382 1.344969
8.605533 4.38663 1.357495
5.941769 4.443396 1.397898
7.202439 4.469185 1.392615
8.590315 4.427154 1.35819
8.609084 4.483515 1.364175
57.55243 4.478965 1.340238
59.36272 4.432283 1.382064
7.15276 4.584945 1.395858
8.257475 4.577191 1.326876
8.456076 4.560746 1.350258
8.558613 4.583322 1.364453
8.722023 4.575279 1.384216
55.9979 4.505497 1.304308
-13.62748 4.639173 1.343032
-10.89758 4.652705 1.385678
-10.72005 4.687933 1.368255
8.191801 4.651725 1.323954
8.243877 4.615819 1.327851
8.371777 4.611941 1.343299
8.417503 4.602723 1.348309
8.532881 4.631052 1.364453
8.663246 4.610214 1.379206
8.732924 4.614093 1.388113
-13.50853 4.75447 1.336065
-13.42776 4.794615 1.330213
-13.16869 4.785204 1.307175
-13.08339 4.798198 1.300116
-10.86977 4.717291 1.385678
7.939743 4.75372 1.300573
8.015169 4.737329 1.308506
8.295108 4.756426 1.343856
5.059589 4.861318 1.321986
5.155768 4.847051 1.33328
5.088286 4.989784 1.342723
5.136044 4.948921 1.343834
6.352873 4.971416 1.325335
6.449648 4.98844 1.339602
8.07784 4.948174 1.33133
13.7295 4.961877 1.361982
-4.772698 5.089522 1.31458
5.057556 5.074689 1.349882
5.116239 5.059428 1.355684
6.250054 5.082906 1.323552
6.344992 5.040359 1.331334
7.771153 5.073688 1.30433
13.67079 5.029871 1.359009
13.72132 5.00772 1.362725
-4.77208 5.145611 1.322233
5.046735 5.153556 1.359016
6.348449 5.10246 1.338143
13.35885 5.162848 1.336158
13.59987 5.185126 1.357894
13.61706 5.145464 1.35808
13.98527 5.189969 1.391707
18.83385 5.15766 1.365483
19.03395 5.125068 1.378388
-13.95601 5.256844 1.391335
-4.770432 5.204189 1.330133
4.806815 5.264138 1.343093
4.940787 5.283463 1.362905
5.037588 5.254433 1.371483
5.139277 5.277461 1.3879
7.648745 5.252909 1.304052
8.395883 5.209728 1.388669
13.27423 5.215461 1.330584
18.37057 5.232989 1.335697
18.84143 5.246449 1.367645
29.22678 5.290331 1.385112
4.789144 5.335783 1.35087
4.845485 5.332599 1.357535
4.967876 5.310647 1.370126
5.116499 5.378491 1.398639
13.28269 5.353081 1.336065
13.33461 5.306491 1.338944
29.23744 5.376633 1.386323
4.862729 5.48088 1.380494
4.990889 5.431359 1.389752
4.87025 5.586811 1.396417
13.62054 5.561217 1.372571
29.21088 5.54059 1.386509
-4.424395 5.673121 1.355499
3.909014 5.696166 1.301619
4.043272 5.628262 1.305693
4.141918 5.661167 1.321616
4.229357 5.69273 1.336181
4.3963 5.67381 1.352351
4.44661 5.670284 1.357659
4.545872 5.649921 1.366299
4.635351 5.65415 1.377532
4.777205 5.658169 1.395214
4.828394 5.633382 1.397898
-4.413406 5.710276 1.359757
-4.056902 5.76684 1.328466
-3.85258 5.772331 1.307544
3.872651 5.770716 1.309396
3.917773 5.736167 1.308779
4.372989 5.747137 1.360646
4.565825 5.704152 1.376606
7.286452 5.7545 1.304887
7.37516 5.789105 1.317691
7.433979 5.768464 1.322423
7.796189 5.762562 1.362505
-4.366782 5.822351 1.371236
-4.148582 5.876632 1.355313
-4.040786 5.842778 1.338464
-3.932173 5.866425 1.330626
-3.819452 5.869464 1.319394
7.273304 5.812442 1.308506
7.358754 5.845038 1.320753
7.439149 5.803747 1.326041
7.530489 5.805544 1.33634
13.72832 5.83581 1.391707
-4.420359 5.918849 1.39185
-4.340575 5.97475 1.391418
-4.287491 5.999755 1.389381
-4.017756 5.90751 1.346056
-3.940374 5.97589 1.348648
-3.830025 5.980789 1.338094
-3.76793 5.97715 1.331244
-3.67583 5.963904 1.319949
-3.548108 5.960562 1.306952
-3.466169 5.985045 1.303101
5.252603 5.95372 1.304422
-5.24644 6.067377 1.317824
-5.175334 6.057394 1.308961
